# .PCD v0.7 - Point Cloud Data file format
VERSION 0.7
FIELDS x y z
SIZE 4 4 4
TYPE F F F
COUNT 1 1 1
WIDTH 1381
HEIGHT 1
VIEWPOINT 0 0 0 1 0 0 0
POINTS 1381
DATA ascii
11.65345383 15.46655273 -2.47960377
12.72091293 16.91382217 -2.52304411
24.4927063 32.92079926 -2.73484707
6.79775 8.83071613 -2.22069883
7.10962296 9.25295162 -2.22006249
7.48117018 9.75440979 -2.22830343
9.15756702 12.00530434 -2.33232927
9.82143211 12.89899731 -2.3601985
10.66161728 14.02772331 -2.40883017
11.76193428 15.50315952 -2.4883337
12.77716351 16.87187004 -2.5194118
24.68835068 32.95582962 -2.73748159
6.77022314 8.73469925 -2.20018792
7.14664602 9.2372551 -2.21990347
7.51683426 9.73361588 -2.22706103
9.81322956 12.79987812 -2.34515786
11.84065819 15.49982262 -2.49068522
12.82423782 16.81789207 -2.51399899
14.25528049 18.72819328 -2.59045029
24.83640671 32.92621613 -2.73475432
6.78590012 8.69808006 -2.19445467
7.15180016 9.1839323 -2.21050429
7.54468346 9.70623875 -2.22414231
9.19316578 11.89164734 -2.31656623
9.90813065 12.83969021 -2.3554585
11.83206177 15.38815403 -2.47546816
12.92865372 16.84476089 -2.52056909
14.24165249 18.58900833 -2.57349372
25.01501656 32.94798279 -2.73632121
6.79081106 8.64485645 -2.18471909
7.18560934 9.16419411 -2.20940423
7.61056995 9.72393417 -2.2317903
9.96310616 12.82262611 -2.35551739
11.83163452 15.28248501 -2.4613626
13.04847527 16.88459396 -2.52926493
25.16943932 32.9249649 -2.73416448
6.82285357 8.62628746 -2.1837666
7.2193656 9.14433289 -2.20829725
7.64922094 9.70654297 -2.23140955
11.87945652 15.23954964 -2.45737767
13.09547615 16.82980728 -2.523803
14.41383457 18.55765533 -2.57411456
25.36964417 32.96057892 -2.73689055
6.85484695 8.60760212 -2.18280768
7.26531076 9.13972092 -2.21090889
7.6817174 9.68130112 -2.22924328
9.36098099 11.86230469 -2.32086658
10.07304382 12.78783321 -2.35559368
11.86889744 15.12236404 -2.44140935
13.13306332 16.76317596 -2.51657557
25.53978539 32.95580673 -2.7362721
6.88527346 8.58999443 -2.18194461
7.30969238 9.1361742 -2.21361518
7.70320415 9.64576149 -2.22452307
8.21635342 10.30707359 -2.25732517
9.36773586 11.7943716 -2.31077218
10.10422134 12.74472904 -2.35075045
10.95390034 13.84149933 -2.39484239
11.9165926 15.08528042 -2.43823409
13.2074194 16.7494278 -2.51716709
25.69215012 32.93899155 -2.73467517
6.91100407 8.56345463 -2.17902851
7.30019855 9.06234932 -2.19946694
7.73858452 9.62417221 -2.22323585
10.11583042 12.67273998 -2.34075141
11.9482708 15.02269173 -2.43110251
13.21987247 16.65144348 -2.50524759
14.61056232 18.43644333 -2.56478167
25.84423065 32.90922165 -2.7320025
7.0450182 8.66996193 -2.2101109
7.32437229 9.03062916 -2.19555235
7.77700615 9.60627747 -2.22282767
8.29141521 10.260396 -2.25436902
9.44948387 11.73627567 -2.30623817
10.21084309 12.70490837 -2.35004282
12.0199995 15.01037216 -2.43213463
13.3404026 16.6892662 -2.51380444
14.66871834 18.38437462 -2.56012988
26.05520821 32.95315933 -2.73546314
6.97148991 8.5215292 -2.17609882
7.40130377 9.06349468 -2.20741034
7.8060565 9.57679939 -2.21975541
10.23452473 12.6481514 -2.34289408
12.11670303 15.02862549 -2.43816185
13.46444607 16.73034096 -2.52289963
14.67062283 18.26239777 -2.54574108
26.23256302 32.95313263 -2.73528337
6.96735859 8.46189499 -2.16454625
7.39885092 9.00242519 -2.19617105
7.83018684 9.54479218 -2.21591091
10.21506691 12.54329491 -2.3266387
11.2259655 13.80942726 -2.40201521
12.14220905 14.96381378 -2.43056011
13.49527073 16.66127396 -2.51524282
15.13774776 18.72275352 -2.61254191
26.37949371 32.92572403 -2.73284936
7.03649187 8.48794842 -2.1751883
7.41334295 8.95909119 -2.18946576
7.86214495 9.51894951 -2.21371603
9.64002991 11.73562431 -2.31650066
10.34169674 12.61287022 -2.34298825
12.23285198 14.97368145 -2.43528843
13.54440403 16.60906792 -2.51030111
26.56357574 32.93195343 -2.73321152
7.07440853 8.47600937 -2.17612267
7.51263952 9.01761055 -2.20774746
7.91291761 9.5156889 -2.21681094
10.35538578 12.54441833 -2.3337009
12.28900719 14.94098949 -2.4331181
13.66270638 16.64112854 -2.51813912
15.23363018 18.58811188 -2.59921694
26.7416935 32.9295845 -2.73287082
7.07440853 8.41888237 -2.16544127
7.52389622 8.97024155 -2.20010185
7.95110512 9.49711418 -2.21636343
12.38623905 14.95774174 -2.43904114
13.75287914 16.63815308 -2.52071023
26.92324257 32.93026352 -2.73279452
7.07896805 8.3705616 -2.15680718
7.53651571 8.92795563 -2.19349551
7.95901155 9.44592762 -2.20809722
8.56227398 10.18040848 -2.25897861
12.43977356 14.92665672 -2.43701768
13.75763702 16.53793907 -2.50839019
15.08366299 18.1651268 -2.5453558
27.08983421 32.92324066 -2.73209643
7.10068369 8.3397274 -2.15290427
7.56962633 8.90681934 -2.19231915
8.00976562 9.44216061 -2.21116018
12.4703207 14.86282921 -2.42982697
13.85412025 16.54203796 -2.51208568
15.14083004 18.11156845 -2.54062676
27.27193069 32.92230606 -2.73190832
7.14464808 8.33489418 -2.15575194
7.61547327 8.90048695 -2.19482303
8.03818321 9.41198349 -2.2080543
8.60468388 10.0937891 -2.24751616
12.56785488 14.8785181 -2.43567729
13.96679974 16.56465721 -2.51863718
27.43833351 32.901371 -2.73007154
7.18866014 8.32986164 -2.15858603
7.64209652 8.87162781 -2.19178772
8.09540081 9.41528702 -2.21284795
12.65919971 14.88617039 -2.44025278
13.96078873 16.44668007 -2.50380707
27.64019775 32.92172623 -2.73167419
7.16038275 8.24446201 -2.14033008
7.64771223 8.82175732 -2.18334031
8.10592651 9.36765766 -2.20545888
8.65745354 10.02346992 -2.23952293
9.89510155 11.49871635 -2.29478812
10.67462349 12.42734814 -2.33278656
12.62544823 14.75242138 -2.42145491
14.11590958 16.52384949 -2.5185771
27.83353043 32.94212341 -2.7332952
7.21391439 8.25034523 -2.14604306
7.66757822 8.78541088 -2.17846584
8.14377117 9.34831905 -2.20496821
8.68127251 9.98374271 -2.23462701
11.70544052 13.56096268 -2.38900161
12.70372868 14.74458599 -2.42352962
14.18706989 16.49611092 -2.51755166
15.47137356 18.02265549 -2.53940225
28.0297718 32.95297623 -2.73413134
7.26431942 8.252285 -2.15077591
7.71326733 8.77854347 -2.18093824
8.19782257 9.34732342 -2.20884633
8.66916656 9.90319347 -2.22057223
12.78534889 14.74014187 -2.42619729
14.1313324 16.32169914 -2.49411631
15.26129055 17.65953827 -2.49106836
28.23288155 32.97047806 -2.73553085
7.27897787 8.213624 -2.14493036
7.73617506 8.74572277 -2.17697477
8.23891068 9.33132458 -2.20920849
8.78387356 9.9669838 -2.23897386
10.73659039 12.2505827 -2.31055927
12.90300369 14.77641296 -2.43562007
14.2117424 16.30502892 -2.49480963
28.41685486 32.96432495 -2.73497844
7.31490183 8.20183468 -2.14590764
7.77049685 8.72886562 -2.17678857
8.27179337 9.30923843 -2.207932
8.79581928 9.91740322 -2.23169684
12.89717197 14.67648602 -2.42240763
14.23362637 16.22703171 -2.485955
15.69326496 17.92404556 -2.53420401
28.62151909 32.9924202 -2.73728204
7.33914328 8.17403412 -2.14293599
7.7833395 8.68492413 -2.17007232
8.31939983 9.30026436 -2.21002054
8.82900047 9.88837147 -2.22927761
10.79961395 12.1629715 -2.30129361
13.00854301 14.70451736 -2.4305439
14.37642288 16.28056526 -2.49747634
15.59822083 17.697052 -2.50506592
28.77328682 32.94692993 -2.73348665
7.36657476 8.1498003 -2.14091921
7.80586338 8.65193462 -2.16610432
8.36044216 9.2837677 -2.21035123
8.85548687 9.8519001 -2.22519469
11.82539368 13.25386047 -2.35257816
13.05749893 14.66160297 -2.42697549
14.42066574 16.22201347 -2.49182177
15.58768559 17.56753731 -2.48971438
28.96791267 32.94950485 -2.7336936
7.3806982 8.1109705 -2.13507128
7.82825279 8.61889076 -2.16213489
8.3385725 9.19785309 -2.19412136
8.85864639 9.7897892 -2.21531296
11.86624813 13.21115971 -2.3486824
13.09968376 14.61114216 -2.42217326
14.38844299 16.07824898 -2.47306037
15.73553944 17.61620712 -2.49966121
29.14301872 32.92874146 -2.7319746
7.39321518 8.07342052 -2.1293323
7.86891127 8.60890865 -2.16375518
8.39765644 9.20448589 -2.19978929
8.88635731 9.75844574 -2.21218753
11.80817509 13.06381798 -2.3259511
13.20897293 14.640172 -2.43040776
14.45574093 16.05173683 -2.47217751
15.92402935 17.71489716 -2.51661038
29.33912468 32.94207001 -2.73309588
7.44695473 8.07784748 -2.13494754
7.89444304 8.57931328 -2.16069007
8.46849537 9.2202425 -2.20792341
8.95903492 9.77269745 -2.21967411
11.90178967 13.07982063 -2.33253932
13.27107048 14.61128235 -2.42924452
14.59259319 16.09601784 -2.48242831
15.85938168 17.52601814 -2.49284911
29.56467056 32.97537994 -2.73588872
7.46069622 8.03888035 -2.12909675
7.93324232 8.56405735 -2.1612668
8.46257019 9.15254879 -2.19605851
8.94152164 9.68880844 -2.20484543
11.89511871 12.98575497 -2.31949162
13.32977104 14.57848263 -2.42745543
14.52215195 15.91218281 -2.45746922
29.743927 32.95571136 -2.73429537
7.49438667 8.02140903 -2.12896681
7.95188761 8.52708626 -2.15637159
8.51673603 9.14981937 -2.19982219
9.01425934 9.70261192 -2.21230173
11.15013313 12.06900787 -2.3065207
12.01574421 13.0302763 -2.33125782
13.47247505 14.63669205 -2.44088531
14.74995136 16.05441856 -2.48295259
16.36237526 17.84248734 -2.54432321
29.94016075 32.95368195 -2.73417854
7.52662802 8.00510979 -2.12893605
7.96213627 8.48430538 -2.14977217
8.55251408 9.13036537 -2.19935751
9.0450201 9.67442417 -2.2099762
11.15454102 11.99791336 -2.29669929
12.05688858 12.99272156 -2.328161
13.50177383 14.57639408 -2.43437171
14.84778786 16.05937195 -2.48706651
16.41517258 17.787714 -2.53958726
30.12085724 32.94489288 -2.73350859
7.51633835 7.94107914 -2.11642432
7.99396563 8.461586 -2.14851403
8.57295418 9.09138966 -2.19443393
9.04694462 9.61227036 -2.20011115
11.16409302 11.92858887 -2.28742361
12.11034966 12.96380138 -2.32683706
13.60788155 14.59352303 -2.44103217
16.30834961 17.55513191 -2.50959682
30.31428909 32.93738937 -2.7329607
7.55655432 7.93045807 -2.11818218
8.00537872 8.41739178 -2.14180374
8.58304596 9.04167461 -2.18691635
9.11645985 9.62175369 -2.20669436
12.02440739 12.78668976 -2.29886007
13.61228657 14.50161362 -2.4294548
14.73353958 15.72570038 -2.44237161
16.22734642 17.35249329 -2.48384786
30.53514099 32.95825195 -2.7347796
7.59678316 7.91965866 -2.11992836
8.06424141 8.42289257 -2.14779067
8.64058113 9.04179478 -2.19149804
9.14865875 9.59165764 -2.20422149
11.28107548 11.8942709 -2.28896832
12.22391415 12.91252613 -2.32544851
13.5821209 14.37378025 -2.41183639
14.79266739 15.68432331 -2.43950605
16.39414024 17.41478729 -2.49607038
30.74284172 32.96342468 -2.73530769
7.60149145 7.874722 -2.11228633
8.05684948 8.36229038 -2.13666272
8.70003414 9.04668903 -2.19704652
9.1824894 9.56660366 -2.2026937
12.2852211 12.89584351 -2.32620263
14.93107128 15.73174667 -2.45031786
16.49345016 17.41047859 -2.49860978
30.92807961 32.95475388 -2.73469281
7.67587948 7.89885712 -2.12349391
8.11916447 8.37094879 -2.14352989
8.75777435 9.04624653 -2.20158792
9.22136688 9.54337692 -2.20184731
14.98683262 15.68608379 -2.44684505
16.79167366 17.60788918 -2.53037763
31.11587715 32.93622971 -2.7332778
7.67146397 7.84195375 -2.11289811
8.11628628 8.31250286 -2.13319945
8.75023174 8.97856617 -2.18974876
9.26363277 9.52353191 -2.20181012
12.40895462 12.85384178 -2.32666159
15.1286087 15.72970581 -2.4573555
16.65376854 17.34810448 -2.49640608
31.31764793 32.93129349 -2.73300266
7.72883034 7.84806728 -2.11933756
8.16486931 8.30672264 -2.13642573
8.74923801 8.9180603 -2.1796453
9.30241489 9.49999237 -2.20094466
12.41721821 12.77736282 -2.31686425
15.2051363 15.70477486 -2.45719099
16.90504837 17.4933548 -2.52079391
31.49901009 32.90376282 -2.73086333
7.72957468 7.79950047 -2.11074853
8.18434048 8.27419472 -2.13253546
8.78793907 8.90120029 -2.17998838
9.31521225 9.45334721 -2.19448733
12.45062923 12.73146534 -2.31240845
15.28238392 15.68571663 -2.45777845
16.77626419 17.25165176 -2.48920536
31.70251083 32.90962601 -2.7315011
7.75923252 7.77744341 -2.1096096
8.16345787 8.19842625 -2.11771464
8.83514023 8.88963509 -2.18191338
9.3468523 9.42259312 -2.19197941
12.51743126 12.71510029 -2.31356359
15.35892773 15.66012287 -2.45756984
31.9120903 32.90901566 -2.73162127
7.79927921 7.76565838 -2.11129332
8.20838261 8.18881702 -2.12001944
8.84400177 8.83958817 -2.17439246
9.38885689 9.40219688 -2.19190955
11.5381813 11.62089539 -2.26503491
12.57727528 12.69139481 -2.31341362
15.42499065 15.62359333 -2.45567107
32.12549973 32.91095734 -2.73196578
7.83583879 7.75024557 -2.11202288
8.27431774 8.19975185 -2.12770557
9.43082905 9.38162708 -2.19182873
11.54542065 11.55131245 -2.25577712
12.64410973 12.67444992 -2.3145299
15.59612083 15.69247723 -2.47041035
32.34626389 32.91896439 -2.73282695
7.86400127 7.72916651 -2.11097097
8.30388451 8.1773138 -2.12650013
8.85244846 8.73423672 -2.15778279
9.48516369 9.3763876 -2.19512105
12.68413639 12.6349268 -2.3113203
13.90164852 13.8739996 -2.36233544
15.58229256 15.58053112 -2.45647693
32.4914856 32.86054993 -2.72817183
7.85126162 7.66549683 -2.0985198
8.29611588 8.11553001 -2.11529922
8.87467194 8.69811535 -2.15370059
9.52007294 9.34852409 -2.19339108
12.62043476 12.48850441 -2.28873539
32.68815994 32.84187698 -2.72684073
7.90523529 7.66688395 -2.10393047
8.32333946 8.08813095 -2.1130774
8.9497509 8.71344185 -2.16242266
9.52308655 9.2895565 -2.18435645
11.77188206 11.54956818 -2.26845598
12.70098972 12.48507309 -2.29238749
32.89919662 32.83636856 -2.72661543
7.9557662 7.66459608 -2.10838342
8.35047054 8.06064129 -2.11085105
8.96477127 8.6702013 -2.15661836
9.58610153 9.28898621 -2.18909955
11.73942375 11.44162369 -2.25169396
12.79941368 12.49855804 -2.2992003
33.08928299 32.80874252 -2.72456527
8.00146294 7.66005611 -2.11199355
8.37609005 8.03451538 -2.10873723
8.94252014 8.5944109 -2.14242387
9.59777641 9.24190807 -2.18262959
10.25998402 9.89867496 -2.208498
15.15544033 14.76321411 -2.34252667
7.99155951 7.59981823 -2.10049248
8.38521862 7.98990202 -2.1020329
9.01056004 8.60226631 -2.14939761
9.66797161 9.24769974 -2.18895769
11.77793121 11.33174038 -2.2387979
14.1072731 13.62491894 -2.34029818
15.29745388 14.80301857 -2.35278034
7.99206352 7.54983711 -2.09181261
8.4370594 7.98585367 -2.10604668
9.01791763 8.55218887 -2.14189601
9.68460941 9.20219421 -2.18315315
12.88237762 12.33597469 -2.28213263
15.36103344 14.76632214 -2.35090613
17.25287247 16.61655807 -2.4325459
8.03893471 7.5435791 -2.09529066
8.47102737 7.9647193 -2.10558319
9.05016899 8.52578354 -2.14034414
9.74055862 9.19390392 -2.18621826
11.89657211 11.29477024 -2.24064589
12.98462868 12.35153294 -2.28948641
15.47848225 14.78082275 -2.3572309
17.40877914 16.65588951 -2.44208837
8.07372952 7.52846003 -2.09606504
8.48195076 7.92479515 -2.09988451
9.09164429 8.5109272 -2.14145613
9.76972198 9.16343689 -2.18376493
15.52506638 14.73245144 -2.3533392
8.0521183 7.45844698 -2.08179331
8.51937008 7.90680885 -2.10030007
9.12739372 8.48760605 -2.14073491
9.76426411 9.09757042 -2.17312717
12.06752014 11.30959129 -2.25271797
15.6753912 14.77663517 -2.36450624
17.57789421 16.60193825 -2.44162893
8.14592838 7.49496555 -2.09735799
8.55314159 7.88533115 -2.09981608
9.14134884 8.44410229 -2.13492751
9.84547424 9.11221123 -2.18178248
12.03268909 11.20230007 -2.23603272
14.39918804 13.45755577 -2.33282447
15.77536392 14.77245522 -2.36798286
17.763731 16.66643143 -2.45503426
8.15295506 7.45150423 -2.09054279
8.57596779 7.85376072 -2.09665942
9.16238308 8.40725613 -2.13081312
9.8796196 9.08303833 -2.17997527
13.17181492 12.20518589 -2.28024483
15.86091614 14.7542448 -2.36924815
17.86644745 16.65190887 -2.45684481
8.16574955 7.41609335 -2.085706
8.60093689 7.82692623 -2.09450674
9.1854372 8.37527466 -2.12766981
13.18845844 12.14386559 -2.27316904
14.40597725 13.29087639 -2.31250024
15.95854378 14.75188446 -2.37287903
17.90426826 16.58256912 -2.45037413
8.22718048 7.42198372 -2.0928328
8.63085556 7.8018117 -2.09311628
9.21716785 8.34824371 -2.12608242
13.2216177 12.09365273 -2.26842785
16.04058456 14.72947598 -2.37354374
18.05094719 16.60767746 -2.45811844
8.25211525 7.39480305 -2.09065652
8.64970684 7.7667346 -2.08906341
9.27815723 8.34743595 -2.13122725
9.89189529 8.91726971 -2.15545964
16.20716095 14.78368378 -2.38662696
18.06939316 16.51459312 -2.44838023
8.26226425 7.3544898 -2.08476782
8.70885658 7.76760769 -2.09473634
9.27671337 8.29054832 -2.12204552
13.33158779 12.03282547 -2.26645279
14.56408215 13.17114067 -2.30514503
16.26739883 14.74022388 -2.38397646
18.17218208 16.4984417 -2.45007992
8.2562027 7.3026228 -2.07529283
8.71143627 7.72079515 -2.08725905
9.2956686 8.25498676 -2.11804581
13.43980789 12.05403137 -2.27501106
16.32864189 14.7026825 -2.3820765
18.22412682 16.44166183 -2.44554973
8.32507992 7.31421232 -2.08421588
8.77432346 7.72449827 -2.09378529
9.31224346 8.21451473 -2.11307693
10.09064102 8.91867447 -2.17164612
14.58633804 13.02124596 -2.28778577
16.41462326 14.68193245 -2.38316417
18.32695389 16.42469406 -2.44719315
8.29777241 7.24153328 -2.06908441
8.80395794 7.69874907 -2.09235501
9.31751919 8.16429043 -2.1055932
13.49773216 11.94548225 -2.26418829
16.54154587 14.69707298 -2.39013314
18.43730545 16.41383934 -2.44978952
8.33697319 7.22697544 -2.07059216
8.80004311 7.64387798 -2.0829947
9.37094212 8.15614223 -2.1090045
10.06834984 8.78063011 -2.14884448
14.53867054 12.80675602 -2.2592504
16.6873951 14.72797394 -2.39973354
18.57388687 16.42549706 -2.45579815
8.36743736 7.20728731 -2.07035923
8.84300137 7.63239908 -2.08519983
9.40431595 8.13326359 -2.10834408
10.11488056 8.76527977 -2.1503067
14.8520422 12.9999218 -2.29786897
16.74877548 14.68892574 -2.39772916
8.40287113 7.18921232 -2.07092357
8.8798418 7.61278486 -2.08551168
9.41287231 8.08615971 -2.10169578
14.85408688 12.91509724 -2.28762317
18.87125969 16.47280693 -2.47135401
8.41578579 7.15191412 -2.06595635
8.86413383 7.54839039 -2.07352829
9.43623161 8.05187321 -2.09839106
17.01182175 14.72129917 -2.41241121
8.43230343 7.11777544 -2.06190968
8.94213963 7.56355476 -2.08347464
9.4782877 8.03343964 -2.09925175
15.01538754 12.88155937 -2.29134703
17.09851837 14.69756222 -2.41328549
18.98053932 16.34813309 -2.46146727
8.47381687 7.10715199 -2.06440735
8.98505783 7.5513854 -2.0856328
9.52268219 8.01964188 -2.10106349
14.87828445 12.68329906 -2.26062059
17.16754341 14.66348743 -2.41224146
8.49014473 7.0728693 -2.06035328
8.99906158 7.51225042 -2.08065629
9.54200554 7.98186922 -2.09690738
10.27039337 8.60857964 -2.1394825
15.11774826 12.80098248 -2.28656435
8.46084785 7.00100899 -2.04530215
9.00531673 7.46682978 -2.07393408
9.59154606 7.96923208 -2.09939671
10.29163456 8.56834984 -2.13522172
8.51859283 7.00110054 -2.05132818
9.04940605 7.45270634 -2.07594299
9.58782291 7.91247511 -2.09025192
10.27083015 8.49350357 -2.12230349
15.04647923 12.57060623 -2.25522757
8.54851341 6.9806447 -2.05104852
9.03497696 7.39324808 -2.06498718
9.62823009 7.89496326 -2.09119606
10.40851688 8.5521698 -2.14255714
8.5528717 6.93693686 -2.0442493
9.08657265 7.38510561 -2.06872392
9.67766953 7.88181829 -2.09365129
10.34527779 8.44295311 -2.12100315
15.22373009 12.55273533 -2.26182985
8.59535313 6.92407131 -2.04658031
9.12287521 7.36435032 -2.06896329
9.68491936 7.83436489 -2.08699393
10.40427589 8.4336319 -2.12457919
8.59942055 6.88033438 -2.03978252
9.13991547 7.32805824 -2.0648489
9.71504498 7.80545712 -2.08529711
10.37093735 8.34978104 -2.10934234
8.60592937 6.84119654 -2.03401875
9.12468243 7.26881456 -2.05391717
9.74370861 7.7781291 -2.08372664
10.4823513 8.38511658 -2.12399077
8.6482439 6.82796717 -2.03632617
9.17228508 7.25697327 -2.05674338
9.74272633 7.72452402 -2.07542491
10.42531013 8.28299332 -2.10408282
15.52733994 12.46551323 -2.26652193
8.66733074 6.79635906 -2.03316832
9.22378731 7.2479353 -2.06041861
9.79190636 7.71062183 -2.07783031
10.46470356 8.25772762 -2.10371447
8.68241882 6.76168394 -2.02910066
9.2481308 7.21745968 -2.05802226
9.80610847 7.66917276 -2.07282162
10.4962635 8.22620773 -2.1017766
12.10975266 9.53069592 -2.15545273
8.71953297 6.74652052 -2.03059053
9.24772739 7.17043447 -2.05056524
9.83438396 7.6415081 -2.0712316
10.58088112 8.2388258 -2.11086798
12.17116833 9.51719666 -2.15801597
14.12327003 11.09032154 -2.19115829
8.74222183 6.71770477 -2.02832747
9.26790714 7.13687849 -2.0473032
9.87174511 7.61804771 -2.071141
10.54983616 8.1586132 -2.0964694
12.15993404 9.44363785 -2.1472609
8.78437901 6.70370626 -2.03058267
9.30362797 7.11521864 -2.04748559
9.90122223 7.58843279 -2.0694015
10.58109665 8.12677383 -2.09451222
12.24643993 9.44578552 -2.1537745
8.79908085 6.66874456 -2.02649879
9.31182766 7.07257986 -2.04163218
9.95810986 7.57958984 -2.07338047
10.57295799 8.06489944 -2.08479786
12.27015114 9.39933586 -2.14922833
8.80853653 6.63233757 -2.02163243
9.32646942 7.03750849 -2.03762889
9.93101597 7.50980377 -2.06031895
10.65372658 8.07353115 -2.09304357
8.94123077 6.6855545 -2.04459429
9.31855106 6.98309803 -2.02834582
9.96805859 7.48586941 -2.06019807
10.6215353 7.99384499 -2.07869363
8.86886787 6.58575058 -2.02066994
9.38551903 6.98460531 -2.0353713
9.98526382 7.44704914 -2.05599189
10.69584656 7.99420357 -2.08521342
8.90290928 6.56518221 -2.02107573
9.40105724 6.94774628 -2.0312326
10.01422215 7.41699314 -2.05422664
10.71073151 7.95005417 -2.08013868
19.61205864 14.77774906 -2.31439734
8.89603615 6.51699591 -2.01260734
9.40727901 6.90667629 -2.02550983
10.05371475 7.39733028 -2.05502939
10.77179337 7.9428916 -2.08445072
19.66656876 14.72243023 -2.31055331
8.93786907 6.502038 -2.01479793
9.43048763 6.87559128 -2.02308202
10.08252811 7.36702251 -2.05324745
10.83033085 7.93063021 -2.08782506
19.77944565 14.7050457 -2.3129735
8.98369217 6.48975086 -2.01787019
9.46158028 6.85019827 -2.02235675
10.10725403 7.33371258 -2.05064797
10.84092045 7.88325071 -2.08196187
8.99352741 6.45147228 -2.01286721
9.49260807 6.82467556 -2.02162313
10.13988209 7.30608034 -2.04966331
10.83127117 7.82144642 -2.07226706
9.01409721 6.42331362 -2.01067162
9.50631523 6.78924322 -2.01760316
10.1309948 7.25140667 -2.04071879
10.90834618 7.82494068 -2.07958341
20.25700188 14.75539398 -2.33650351
9.03169346 6.39068413 -2.0074563
9.53717804 6.76352072 -2.01685667
10.18351173 7.23791456 -2.04376602
10.93860817 7.79177141 -2.07754207
9.07737541 6.37777233 -2.01048517
9.56394386 6.73483706 -2.01525211
10.17149734 7.17870235 -2.03388572
10.91628742 7.72144794 -2.06556273
20.50857925 14.73188686 -2.34366679
9.07864857 6.33371973 -2.0036931
9.58658218 6.70323277 -2.01279235
10.21581841 7.15923452 -2.0352993
10.99882984 7.72509289 -2.07343745
20.72379112 14.78268909 -2.35732198
9.10694313 6.31088829 -2.00326204
9.5795784 6.65357924 -2.00452495
10.24264526 7.13007593 -2.0336175
11.00309467 7.67655945 -2.06695199
9.12818623 6.28078747 -2.00092149
9.63036537 6.64147234 -2.00798965
10.27877235 7.10463953 -2.03339839
11.00850964 7.62616444 -2.06032348
13.70159149 9.55598354 -2.12675476
9.15339565 6.2533865 -1.99946487
9.64455509 6.60408878 -2.00382566
10.28226566 7.05673885 -2.02674675
9.17037201 6.22037411 -1.99622738
9.69123173 6.58881235 -2.00641727
10.31820583 7.03109074 -2.02651381
11.04728413 7.54500294 -2.05239344
9.22289085 6.21361399 -2.0010879
9.72857285 6.56948566 -2.00743604
10.35284805 7.00708103 -2.02640939
11.09581566 7.52705431 -2.05425763
9.22334385 6.1694746 -1.99429631
9.72198486 6.51815844 -1.9990449
10.31898308 6.93439913 -2.01256204
11.14567375 7.5069418 -2.05595541
9.25642681 6.14713907 -1.99458396
9.73979759 6.48330355 -1.99571204
10.35048866 6.90577459 -2.01151562
11.17085266 7.47012377 -2.05310154
9.26067734 6.10572767 -1.98867965
9.78629208 6.46739101 -1.99825907
10.35720921 6.86069107 -2.00567579
11.17530537 7.41957474 -2.04646969
16.39845085 11.01339817 -2.14234257
24.09098244 16.28964615 -2.39049959
9.30900574 6.09556484 -1.99260712
9.80690098 6.43675327 -1.99588561
10.42443752 6.85806417 -2.01192617
11.15346336 7.35472012 -2.03547192
12.04772663 7.96271467 -2.07226968
9.31714535 6.05676174 -1.98758078
9.84094906 6.4124012 -1.99589062
10.4267931 6.81014729 -2.0052824
11.29401302 7.39356089 -2.05369139
9.35824013 6.03928137 -1.98959625
9.85837555 6.37720633 -1.99253607
10.45381355 6.77837706 -2.00341082
11.25660229 7.31591177 -2.03953266
9.38687897 6.0136466 -1.98896015
10.00436306 6.42438555 -2.01509976
10.50566292 6.76250696 -2.00629234
11.29777241 7.28942919 -2.03965878
9.4019165 5.98161507 -1.98580861
9.90837002 6.31898546 -1.98929369
10.48140049 6.7004261 -1.99503446
11.35426617 7.27537489 -2.04292107
9.41790199 5.94791222 -1.98252869
9.94630241 6.29676676 -1.9900986
10.54562664 6.69219875 -2.00027037
11.29102039 7.18224001 -2.02430749
9.43794155 5.91677952 -1.98012257
9.98002052 6.27174902 -1.99005771
10.60155487 6.67836761 -2.00390005
11.36949921 7.17919636 -2.03114152
9.44951153 5.88038921 -1.97596288
10.0053091 6.24136972 -1.98834205
10.57791328 6.61459541 -1.99251461
11.38520527 7.1363945 -2.02674937
9.48924255 5.86370993 -1.97804618
9.97487259 6.17894936 -1.97595239
10.59897327 6.58148479 -1.98995888
11.37849426 7.08250761 -2.01878333
9.48800182 5.81949759 -1.9712615
10.0376997 6.17175579 -1.98170662
10.65474129 6.56715012 -1.9935528
11.45277119 7.0760498 -2.02481318
9.52865791 5.8009057 -1.97319889
10.10480309 6.16677904 -1.98826385
10.68102646 6.53451586 -1.99162328
11.43012428 7.00983095 -2.01372194
9.53977394 5.76432419 -1.96902812
10.05802727 6.09258938 -1.97244489
10.68609333 6.48898983 -1.98576248
11.45365143 6.97207069 -2.01081109
9.55818367 5.73444843 -1.96672428
10.08168602 6.06363392 -1.97084379
10.71945477 6.46317434 -1.98553586
11.44194794 6.91580009 -2.00212121
15.5306139 9.47931862 -2.08268714
24.01980782 14.80314636 -2.24181819
9.60715294 5.72044563 -1.97036731
10.14023399 6.05301428 -1.97570634
10.76238251 6.44040775 -1.98672068
11.55002594 6.92878532 -2.01400733
9.61795235 5.68368626 -1.96618533
10.14362717 6.00946569 -1.96982622
10.77128506 6.39729404 -1.9816364
11.53076744 6.865376 -2.00368094
9.632864 5.64940453 -1.96286964
10.15109539 5.96845627 -1.96477377
10.80130672 6.36670732 -1.98045719
11.53677464 6.81723785 -1.99779761
9.66368961 5.62665319 -1.96314204
10.18718433 5.94659662 -1.96561646
10.88130569 6.36774874 -1.98876905
11.57126522 6.78862572 -1.99722922
9.66559315 5.58487225 -1.95722604
10.31824875 5.97706556 -1.98438001
10.84715557 6.29961157 -1.97588146
11.57695198 6.74046326 -1.99134588
9.68870258 5.55536175 -1.95562983
10.20144367 5.86447191 -1.95550752
10.86833858 6.26376772 -1.97312415
11.62957954 6.71950388 -1.99354625
9.71172237 5.52576065 -1.9540273
10.26835537 5.85757875 -1.96192479
10.88511086 6.22540617 -1.9695859
11.63067627 6.66880608 -1.98692501
9.75942421 5.51226044 -1.9577142
10.28704739 5.82542706 -1.95945227
10.94363403 6.2132349 -1.97394395
11.69060612 6.65438414 -1.99071896
9.7651186 5.47278786 -1.95265353
10.28515148 5.77937031 -1.95275307
10.93438435 6.16013479 -1.96574497
11.6914072 6.60362244 -1.9840945
9.80081367 5.45005608 -1.95360649
10.36066914 5.77653313 -1.9607476
11.01551056 6.15767574 -1.9737922
11.70926857 6.56258345 -1.98039699
9.8019371 5.40815735 -1.9476856
10.34125233 5.72084427 -1.95078254
11.01460934 6.10931921 -1.96713579
11.75726509 6.53829479 -1.98180091
9.82355118 5.37981844 -1.94618332
10.35951519 5.68846321 -1.948295
11.04274368 6.07959318 -1.96602952
11.77807522 6.50149775 -1.97897553
9.8287096 5.34030151 -1.94112182
10.42203426 5.67776871 -1.95379245
11.07187462 6.0478282 -1.96476746
11.79991531 6.46258545 -1.97598839
9.84673214 5.30780554 -1.93862605
10.43247986 5.63863897 -1.94952404
11.08352947 6.00654221 -1.96042109
11.86077118 6.44481468 -1.97952962
9.89507961 5.29147243 -1.94209933
10.45583248 5.60648108 -1.94768739
11.11680412 5.9769187 -1.95991313
11.87806702 6.40328646 -1.97579813
9.92071342 5.2650876 -1.94142449
10.47809505 5.57605267 -1.94598401
11.1358614 5.94211721 -1.95724273
11.91154766 6.3730979 -1.97511756
9.94721222 5.236866 -1.94060922
10.49252319 5.53911972 -1.94251788
11.1689682 5.91223621 -1.95671618
11.92421722 6.32911444 -1.97065389
9.95178127 5.19715214 -1.93553519
10.5330658 5.51585484 -1.94389331
11.16697979 5.86386681 -1.95006311
11.97614956 6.30582047 -1.97268367
9.96495056 5.16198826 -1.93216181
10.53413296 5.4719615 -1.93799806
11.1691761 5.81785345 -1.94417977
11.9622364 6.24796677 -1.96388674
9.97708225 5.12852907 -1.92891955
10.52527809 5.4254427 -1.9306376
11.25801277 5.81910753 -1.95369506
12.01729774 6.22870302 -1.96677184
9.98561573 5.09107685 -1.92469585
10.56995296 5.40409613 -1.93279362
11.2732029 5.77965355 -1.95008183
11.99860668 6.16868162 -1.95726454
10.01601315 5.06471395 -1.92470086
10.56615448 5.3580246 -1.92610049
11.29266167 5.74239874 -1.94722629
12.09873676 6.16941261 -1.96713543
10.05516243 5.04261303 -1.92638433
10.61069584 5.33636856 -1.92823374
11.31641293 5.70729971 -1.94512522
12.04436588 6.09155703 -1.95190036
10.05805779 5.00454903 -1.92143929
10.62774944 5.30314112 -1.92568707
11.33020115 5.66966534 -1.94165266
12.0858984 6.06493235 -1.95258737
10.10150242 4.98434162 -1.92394412
10.65891743 5.27455997 -1.92539346
11.35372543 5.63441324 -1.93954062
12.16835213 6.05580044 -1.95952272
10.10062504 4.94230032 -1.91801918
10.69001293 5.24583197 -1.925089
11.38601398 5.60342312 -1.93893313
12.21535778 6.02870846 -1.96072006
10.10845184 4.90461159 -1.9137795
10.71215248 5.21264887 -1.92317891
11.36488724 5.54633284 -1.92926037
12.1689167 5.95579052 -1.94695544
10.15526867 4.88787031 -1.91722655
10.70657825 5.16840219 -1.91662776
11.41820335 5.52794027 -1.93256283
12.22798824 5.93711281 -1.95043397
10.18959713 4.86275959 -1.91800547
10.71510887 5.12875891 -1.91232634
11.45466232 5.4987402 -1.93268228
12.2658062 5.90527964 -1.9501785
10.1882019 4.82065773 -1.91207695
10.7413435 5.09755945 -1.91120136
11.46425724 5.45664644 -1.92828119
12.24097919 5.84348154 -1.93999326
10.20450115 4.78696966 -1.90949619
10.76301861 5.06414747 -1.90927482
11.44238663 5.39981985 -1.91862977
12.30540085 5.82416201 -1.94396889
10.22431087 4.75707865 -1.90788221
10.78369331 5.03252411 -1.90748537
11.48650932 5.3765378 -1.92038095
12.31948471 5.78354788 -1.94031477
10.24935818 4.72738791 -1.90695965
10.80068398 4.99687576 -1.90475559
11.55847359 5.36348248 -1.92644894
12.34792519 5.74701118 -1.93860948
10.2608614 4.69145346 -1.90353155
10.84000778 4.97143316 -1.90596938
11.52262497 5.30055475 -1.91456413
12.39424801 5.71862602 -1.93971002
10.25426388 4.64737844 -1.89677691
10.83430862 4.92541075 -1.89928353
11.57650185 5.27884007 -1.91761374
12.39547729 5.66945934 -1.93376541
10.27816296 4.61928701 -1.89597714
10.89511108 4.91171551 -1.90455914
11.60238075 5.24665928 -1.91632843
12.4361124 5.64086056 -1.93430448
10.3163271 4.59530115 -1.89751923
10.89365768 4.86766434 -1.89865673
11.6291008 5.21234798 -1.91488016
12.4505825 5.59774637 -1.93045986
10.34541988 4.56714344 -1.89739037
10.93720722 4.84361362 -1.90060997
11.60146618 5.15389538 -1.90451634
12.46037769 5.55258846 -1.92591345
10.3518362 4.52899361 -1.89311719
10.95357227 4.80745697 -1.89784181
11.63243294 5.12151384 -1.9038049
12.49266624 5.51740408 -1.92485774
10.38899803 4.50634623 -1.89476192
10.97802639 4.77708244 -1.89678121
11.63519859 5.07917547 -1.89879751
12.51026917 5.47830105 -1.9218657
10.39065361 4.46616888 -1.88965774
10.97148323 4.73104239 -1.8900944
11.67503834 5.05051088 -1.89954853
12.56961632 5.45465946 -1.92496634
10.3921566 4.42603064 -1.88455653
11.01019382 4.70444489 -1.89122033
11.70117283 5.01581049 -1.89807069
10.4480648 4.40886641 -1.88932431
11.00334358 4.6584487 -1.88453674
11.69077206 4.9655714 -1.89069152
12.57887459 5.35992098 -1.91444421
10.43034649 4.36285782 -1.88107026
11.04560757 4.63542032 -1.88656819
11.74313354 4.94427633 -1.89377344
12.62792969 5.33399916 -1.91627932
10.46792221 4.33777571 -1.88252842
11.05215549 4.59512377 -1.88221812
11.75982094 4.90546513 -1.89080274
12.6047678 5.27511644 -1.90686393
10.48261833 4.30315971 -1.87987721
11.09054375 4.56796169 -1.88330042
11.76266003 4.86094856 -1.88562834
12.63627243 5.23914289 -1.90574765
10.51091671 4.27405024 -1.87967503
11.12887383 4.54059696 -1.88436711
11.79280949 4.82767725 -1.88484836
12.68142509 5.20864868 -1.90668702
10.53379917 4.24479723 -1.87878597
11.1434288 4.50574303 -1.88169813
11.8220129 4.79631567 -1.8842144
12.6705246 5.15778303 -1.89952123
10.55735683 4.21360731 -1.87774825
11.14031982 4.46158075 -1.87578678
11.83820915 4.75724316 -1.8812232
12.710886 5.12515163 -1.89975119
10.56246185 4.17508078 -1.87344539
11.16001129 4.42656612 -1.87373757
11.87726688 4.72723484 -1.88187039
12.72356224 5.08132124 -1.8958509
10.58581161 4.14373541 -1.87239552
11.19339561 4.39687204 -1.87399268
11.87942219 4.68255424 -1.8766824
12.73608494 5.03746414 -1.89194834
10.60833359 4.11412716 -1.87147844
11.2121048 4.36360121 -1.87207663
11.8990221 4.64715338 -1.87456059
12.76140785 5.00120211 -1.8902632
10.62689781 4.08080816 -1.86960101
11.245327 4.33361578 -1.87230897
11.94242191 4.61849833 -1.87589955
12.77365398 4.95724964 -1.88635278
10.61767101 4.03692961 -1.86285996
11.26923847 4.29994869 -1.87099433
11.94878483 4.57550049 -1.87142861
12.7996254 4.91858625 -1.88448322
10.6544714 4.01047611 -1.86421096
11.26067829 4.25399208 -1.86431158
11.96887779 4.53775644 -1.86912632
12.77916241 4.86224461 -1.87580562
10.65811825 3.97366261 -1.8600378
11.29748249 4.22735167 -1.86543167
11.96487713 4.49334621 -1.86336875
12.81325531 4.82921028 -1.87545717
10.71329308 3.95373392 -1.864591
11.30716705 4.18829107 -1.8618058
11.99862766 4.46067429 -1.86322093
12.85276699 4.79550457 -1.87560248
10.70816708 3.91155767 -1.85865474
11.32135868 4.15090847 -1.85894048
12.03229427 4.42782927 -1.86305952
12.88289738 4.75816965 -1.87437856
10.73538113 3.88115931 -1.85835063
11.3168354 4.1067605 -1.85302722
12.07517719 4.39818668 -1.86432064
12.88033676 4.70881939 -1.86841619
10.75717068 3.85083985 -1.85737658
11.36725044 4.08463621 -1.85638869
12.06599045 4.35201263 -1.85783756
12.91870117 4.67690659 -1.86869752
10.77956295 3.81854773 -1.85625076
11.39507389 4.05200386 -1.85578299
12.10402679 4.32042074 -1.85835958
12.95315552 4.64088345 -1.86811793
10.7971983 3.78452468 -1.85431612
11.38549232 4.00615883 -1.84910607
12.11397743 4.27877283 -1.85457754
12.95013905 4.59148216 -1.86215019
10.82405853 3.753649 -1.85397363
11.40374947 3.97013545 -1.84697485
12.15182781 4.24686813 -1.85507464
12.97500038 4.5519619 -1.86021101
10.86417484 3.72931361 -1.85615921
11.43521118 3.940835 -1.84725547
12.17012882 4.21043158 -1.85286868
12.98020458 4.50810671 -1.85575795
14.00131702 4.88138723 -1.87201905
10.91426563 3.7060287 -1.85977578
11.46262455 3.90779448 -1.84661639
12.20312119 4.17659378 -1.85262764
12.97668266 4.45879841 -1.84979558
14.01777267 4.83513737 -1.86847317
10.95027924 3.67775893 -1.86098289
11.49462986 3.87618995 -1.84671915
12.18443489 4.12519073 -1.84456301
13.01052189 4.42227745 -1.84917498
14.01059151 4.78084803 -1.86180174
10.93935585 3.63379645 -1.85422969
11.50778675 3.8381865 -1.84380174
12.22188282 4.09274769 -1.84501636
13.04426289 4.38558245 -1.84854043
14.06433105 4.74721956 -1.86323571
10.99330139 3.61333752 -1.85873723
11.56240177 3.81603074 -1.84778905
12.2397213 4.05603027 -1.84278655
13.04419708 4.34007406 -1.84341288
14.13599014 4.72200918 -1.86732125
83.18266296 27.81658554 1.26941717
10.97741699 3.56786394 -1.85119152
11.57065964 3.7762754 -1.84410381
12.27699184 4.02325296 -1.84321308
13.05886936 4.29697275 -1.8401047
14.14720631 4.67376328 -1.86311781
10.98956394 3.53155923 -1.8484019
11.57877922 3.73650837 -1.84041715
12.27649403 3.9781146 -1.8379811
13.10168552 4.26299047 -1.84076655
14.06861782 4.59631824 -1.8471427
11.03454304 3.50563264 -1.85113668
11.63859367 3.71319056 -1.84494519
12.33713818 3.95258212 -1.84190524
13.08778477 4.21062517 -1.83347511
14.10774231 4.557446 -1.84666657
11.03643417 3.46811342 -1.84690166
11.64583397 3.67525506 -1.84139788
12.3498373 3.91395211 -1.8389374
13.11545467 4.17414999 -1.83230877
14.13177299 4.51630926 -1.84451103
15.31393623 4.91435671 -1.85835409
83.28363037 26.65209389 1.35927963
11.05296803 3.43307114 -1.84488249
11.66777039 3.63968325 -1.8399272
12.35838318 3.8716588 -1.83509886
13.15795422 4.1397047 -1.83293259
14.16121674 4.47409725 -1.84277356
15.42047119 4.8922348 -1.86535656
11.07411289 3.39940095 -1.84364331
11.68014431 3.60110664 -1.83696103
12.38097763 3.83372808 -1.83336008
13.1956358 4.10355854 -1.83288002
14.21422672 4.43911171 -1.84409773
11.11879253 3.37276316 -1.84632063
11.72078228 3.57109809 -1.83844423
12.41766357 3.80001974 -1.83371055
13.23322296 4.0672102 -1.83281088
14.25767422 4.40090847 -1.84417081
15.37257671 4.76541376 -1.84783173
11.11549568 3.33369064 -1.84128821
11.75597668 3.5414865 -1.83932531
12.43936443 3.76399326 -1.8321166
13.25101566 4.02722263 -1.83028138
14.27650738 4.35773563 -1.84135401
15.37829113 4.71442032 -1.84299791
11.16949844 3.30949521 -1.84550226
11.76328468 3.50121355 -1.83559442
12.50434017 3.7384131 -1.83662081
13.2551527 3.9805975 -1.82560599
14.27696896 4.30629301 -1.83589494
90.08937836 27.08180618 0.7774176
11.18553257 3.27393484 -1.84343934
11.78944016 3.46648669 -1.83481669
12.48378086 3.6873064 -1.82856989
13.26387978 3.93539453 -1.82158387
14.27724648 4.25489616 -1.83043838
15.36705208 4.60002422 -1.83008432
11.21569157 3.24240041 -1.84371102
11.84399891 3.43986416 -1.83845246
12.52483273 3.65432954 -1.82956135
13.26293468 3.88740087 -1.81625628
14.30591106 4.21192408 -1.82863677
15.35873222 4.54225826 -1.82335329
60.46287537 18.67813683 -1.70083928
11.20717907 3.20185924 -1.83788729
11.83132362 3.39597583 -1.83191371
12.54135609 3.61647725 -1.82723522
13.29923344 3.8527534 -1.81631351
14.32893562 4.16991949 -1.82640719
15.44002247 4.513659 -1.8275615
60.53549957 18.49394417 -1.68677878
11.23713589 3.17013073 -1.83814228
11.87145138 3.36491203 -1.83331048
12.5774641 3.5817759 -1.8275038
13.34089851 3.81695771 -1.81682599
14.34780407 4.12395334 -1.82337046
15.38840008 4.44344473 -1.81575108
60.54853821 18.28022385 -1.67017245
11.27176666 3.13955879 -1.83916056
11.8829174 3.32566118 -1.83028555
12.61824989 3.54821086 -1.8284471
13.38247299 3.7809298 -1.81731963
14.43338966 4.09680939 -1.82879877
15.49897099 4.41978168 -1.82308304
60.53687286 18.05948067 -1.65291643
11.2824955 3.10227895 -1.83628571
11.89425278 3.28637218 -1.82725668
12.64463234 3.51046014 -1.82730222
13.43351078 3.74732327 -1.8190881
14.41856194 4.0411272 -1.82150316
15.4708271 4.35652399 -1.81409383
60.55796814 17.84889793 -1.63658404
11.30685234 3.0707922 -1.83588171
11.91919136 3.25300431 -1.82657826
12.65594482 3.47086644 -1.82424998
13.45989895 3.7092073 -1.81778455
14.49850655 4.01447725 -1.82646608
15.51827431 4.31741428 -1.81428492
60.59925079 17.65584946 -1.62169909
11.33167362 3.03721285 -1.83531523
11.94461918 3.21743584 -1.82572901
12.66775131 3.42903447 -1.82102394
13.53948593 3.68287373 -1.82337928
14.46898556 3.95485353 -1.81736088
15.60952663 4.28714705 -1.81927395
16.9516716 4.67804193 -1.82239556
60.72942734 17.47707939 -1.60828674
11.34206486 2.9997344 -1.83242214
11.97950745 3.18426466 -1.82632685
12.73685646 3.40243053 -1.82602859
13.54719353 3.63685536 -1.81928587
14.52072144 3.91736054 -1.81847906
15.61920071 4.23430586 -1.814744
16.90502357 4.60514641 -1.81139803
11.36189461 2.96470284 -1.83106673
11.99037457 3.14465594 -1.82326925
12.73885536 3.35781837 -1.8214097
13.52118015 3.58197832 -1.81069577
14.50999165 3.86303616 -1.81178427
15.62869549 4.18144894 -1.81021142
11.43851757 2.94626164 -1.83908963
12.02929306 3.11450028 -1.82472908
12.72571468 3.31172228 -1.81491113
13.57109642 3.54964662 -1.81255686
14.55600357 3.8264277 -1.8124671
15.73818874 4.15784502 -1.81754017
11.46297836 2.91205907 -1.83847094
12.06869888 3.0820334 -1.82600939
12.78978348 3.2831409 -1.81917167
13.61196995 3.51220369 -1.81293321
14.56415749 3.77710485 -1.80815959
15.65122604 4.07965612 -1.80190182
16.94057274 4.43800783 -1.79768395
11.4393959 2.86578822 -1.83017075
12.06963062 3.03972578 -1.82147717
12.81057549 3.24328589 -1.81726849
13.65274525 3.4745307 -1.81329048
14.62987232 3.74247217 -1.81099617
15.70833588 4.03906631 -1.80288565
17.15301895 4.43292809 -1.81425798
78.48732758 20.13556099 1.64820743
11.48280907 2.83619976 -1.8326056
12.07041264 2.99744701 -1.81694603
12.83124352 3.20333028 -1.81535637
13.68379879 3.43422437 -1.81235421
14.66181564 3.69898319 -1.809641
15.7364397 3.9908452 -1.80053461
16.97993469 4.32856083 -1.79006565
78.6400528 19.89899445 1.67176485
11.49202633 2.80022049 -1.82982206
12.1137743 2.96783543 -1.81907499
12.85121536 3.16550946 -1.81360805
13.69486237 3.39139009 -1.80904365
14.67851639 3.65429616 -1.80668914
15.72511196 3.93560863 -1.79398167
17.09026337 4.29964209 -1.79610729
78.60923767 19.63044739 1.69035304
11.51124477 2.76450515 -1.82840729
12.14317036 2.93240285 -1.81885862
12.88608837 3.12884617 -1.81371152
13.71603298 3.34847975 -1.80681455
14.71984482 3.61287928 -1.80649292
15.78185463 3.89435363 -1.7949096
17.05646706 4.23129368 -1.78669095
11.51111317 2.72416949 -1.82393503
12.14838886 2.89111328 -1.81503165
12.89676189 3.0862534 -1.81041598
13.73707008 3.30546761 -1.80457628
14.76106071 3.57123017 -1.80627728
15.78053284 3.8387301 -1.78923821
11.54935265 2.69278884 -1.82555187
12.19683743 2.85993171 -1.81766665
12.92176533 3.04701829 -1.80914223
13.75797176 3.2623539 -1.80232871
14.80216217 3.52934933 -1.80604219
15.84186077 3.79815912 -1.7906729
11.55811977 2.65660071 -1.82274771
12.215765 2.82394338 -1.81614125
12.93645191 3.00767207 -1.80668306
13.80231285 3.22715259 -1.80341339
14.78934002 3.47737312 -1.79951632
15.93628502 3.76795983 -1.7961086
17.13671112 4.07437754 -1.77786958
11.51421165 2.60644412 -1.81143999
12.22061443 2.78246069 -1.81229544
12.98054028 2.97261238 -1.80808079
13.79396152 3.17711544 -1.79736149
14.90275478 3.45194101 -1.80806184
15.98293114 3.72319555 -1.79584408
17.16499329 4.02119875 -1.77499592
11.52317429 2.56836081 -1.80848646
12.23498154 2.74313021 -1.80987728
13.02453995 2.93729496 -1.80945718
13.81446171 3.13371992 -1.79508758
14.9532156 3.41150832 -1.80893552
15.95192528 3.66045713 -1.78687263
17.21250534 3.97233582 -1.77410841
78.68386078 18.01963997 1.81228626
11.55132675 2.53445745 -1.8085537
12.27339268 2.70903778 -1.81101918
13.03941917 2.89531231 -1.80678952
13.90261841 3.10528398 -1.80158961
14.94057465 3.35669875 -1.80218554
16.01281548 3.61868978 -1.78820789
17.18709755 3.90673137 -1.76572061
78.53756714 17.71409035 1.82901752
11.55959415 2.49826264 -1.80574417
12.24833965 2.66327715 -1.80305123
13.07301235 2.85974598 -1.80696845
13.88357544 3.05540156 -1.79445696
14.9028883 3.29926467 -1.79272735
16.03413773 3.57074904 -1.78540683
11.60205173 2.46717811 -1.80805063
12.24295807 2.61969113 -1.79777467
13.09248829 2.81860876 -1.80495107
13.92309189 3.01579356 -1.79464853
15.00146294 3.26897526 -1.79938817
16.07537651 3.52416015 -1.78453684
78.4192276 17.15960121 1.86527503
11.6637907 2.43986225 -1.81334591
12.27133369 2.58326292 -1.79746914
13.10698509 2.77635431 -1.8022579
13.95764637 2.97493052 -1.79419696
14.99800873 3.21631455 -1.79380071
16.05816078 3.46481681 -1.77719223
78.76805878 16.96435928 1.89365971
11.74485207 2.41612363 -1.82161486
12.27051353 2.540694 -1.79289961
13.09708309 2.72901177 -1.79623055
13.9726572 2.92982316 -1.79123831
14.96520615 3.15759373 -1.78473818
16.13313866 3.42514873 -1.78005385
11.76244545 2.38127041 -1.82025301
12.31760311 2.51011348 -1.79556918
13.11079979 2.68898988 -1.79370773
14.00157833 2.89007354 -1.79032612
15.03861904 3.12382603 -1.78862143
16.13441467 3.37265635 -1.77506483
11.77066612 2.34236503 -1.81722605
12.36022091 2.47614694 -1.79734313
13.09572124 2.64078617 -1.78702295
14.03576851 2.84871459 -1.78983104
15.07359028 3.07909465 -1.78764784
19.11469841 3.97968984 -1.75651884
11.75934505 2.29966426 -1.81120551
12.44647312 2.45047569 -1.80543804
13.12422848 2.60133004 -1.78630304
14.06010532 2.80523229 -1.78808141
15.09381866 3.03124976 -1.78492928
16.27409935 3.28958774 -1.77957487
11.84985542 2.27651167 -1.82086265
12.48408127 2.41492438 -1.80645478
13.16235065 2.56359839 -1.78689039
14.05021667 2.75497794 -1.78199625
15.10902119 2.98234916 -1.78162634
11.79900455 2.22845101 -1.80902863
12.49196911 2.37581921 -1.80340874
13.20477676 2.52886581 -1.78829694
14.04940319 2.7091291 -1.77733982
15.18205738 2.94730663 -1.78540337
16.31032753 3.18775296 -1.77302575
11.86020756 2.19926667 -1.81416821
12.50989723 2.33631945 -1.80159187
13.31090832 2.50342155 -1.79805958
14.0830574 2.66729474 -1.77680063
15.23115063 2.90455985 -1.78607738
11.87755775 2.1617949 -1.81259346
12.53257084 2.29761481 -1.80046594
13.35364246 2.46568203 -1.79922855
14.1409874 2.62977672 -1.77931464
15.25082779 2.85606742 -1.78330076
16.36113548 3.08550239 -1.76780605
19.5313015 3.73425341 -1.76404488
11.90939713 2.12682128 -1.81323409
12.55512714 2.25878668 -1.79932868
13.33285236 2.41627598 -1.79185247
14.1841774 2.58924961 -1.77996099
15.1042099 2.77711773 -1.76114237
16.44008827 3.04408312 -1.77097189
11.92613411 2.09119797 -1.81180048
12.58690834 2.22373366 -1.79974544
13.36514187 2.37883925 -1.79186714
14.29030323 2.56225252 -1.78872836
15.230546 2.7509172 -1.77110279
16.43033409 2.98911572 -1.76486111
11.9285202 2.05091929 -1.80797994
12.59459877 2.18211508 -1.79649532
13.36845112 2.33381605 -1.78776515
14.36264515 2.5261364 -1.79297698
15.21059132 2.69543982 -1.76377416
16.48457336 2.94268346 -1.76534891
11.95028114 2.01390934 -1.80710876
12.60214996 2.14047098 -1.79324126
13.39604378 2.29294968 -1.78692126
14.37620831 2.47951674 -1.78988028
15.24917889 2.65026999 -1.76324868
16.38681984 2.86949086 -1.74959457
11.95728588 1.97438192 -1.80401731
12.66330433 2.10767436 -1.79761231
13.4577446 2.25762677 -1.79061794
14.32599258 2.42215371 -1.77887607
15.3758049 2.61980081 -1.77286983
16.43581009 2.82207489 -1.74954438
12.00286579 1.94318271 -1.80696654
12.67511749 2.06879878 -1.79520178
13.47002316 2.21628475 -1.78797209
14.39264965 2.38698626 -1.78264928
15.48232555 2.58796382 -1.7803818
16.49397469 2.7788744 -1.75073409
12.01940918 1.90501618 -1.80532587
12.65783978 2.02301264 -1.78846622
13.48257446 2.172544 -1.78513682
14.37145996 2.33468843 -1.775298
15.51080513 2.54001522 -1.77863276
16.5034523 2.7244122 -1.74647748
17.992136 2.99359751 -1.74508619
12.03583145 1.86676264 -1.80367649
12.72848225 1.99102557 -1.79415584
13.53417015 2.13487792 -1.78747034
14.40891171 2.29184604 -1.77520585
15.53423119 2.4911263 -1.77630794
16.62077332 2.68727374 -1.75361311
17.83525658 2.90713906 -1.72429311
12.07658768 1.83209813 -1.80567527
12.76967621 1.95413792 -1.79567766
13.57586479 2.09539461 -1.78848588
14.47076511 2.25257206 -1.778108
15.52313805 2.43675447 -1.77005231
16.78716087 2.65711784 -1.76585591
17.94346237 2.86386824 -1.72916305
19.80809402 3.18715978 -1.7342838
12.11691475 1.79929435 -1.80781817
12.78101921 1.91486502 -1.79322875
13.54841805 2.04773903 -1.78064275
14.49775791 2.21024466 -1.77696526
15.56053543 2.39267945 -1.76959944
16.81542778 2.60763526 -1.76380694
17.96253395 2.8092885 -1.72571671
12.13300323 1.76062262 -1.80613053
12.80239201 1.87473798 -1.79197156
13.60457706 2.01014423 -1.78356278
14.52011395 2.16451979 -1.7750107
15.61789703 2.34861898 -1.77114475
16.83909798 2.55433559 -1.76100028
18.06559753 2.76421738 -1.73002768
12.11467743 1.71705317 -1.7993412
12.81873608 1.8337965 -1.7900182
13.59191608 1.96236598 -1.77746642
14.54724026 2.11938238 -1.77364326
15.67022133 2.30348921 -1.77210402
16.80355263 2.49221158 -1.75202453
18.21780014 2.72581887 -1.73898506
19.53877258 2.94932079 -1.69315338
12.13540363 1.67899513 -1.79837155
12.83494854 1.7927686 -1.78805602
13.61837578 1.92018497 -1.77650142
14.59388828 2.07686567 -1.77465224
15.65846729 2.24892521 -1.76582384
16.91546822 2.45160794 -1.75841975
18.35024452 2.68358374 -1.74598849
19.7212944 2.91016006 -1.7029978
21.91094208 3.26173019 -1.69959044
12.18022156 1.64621508 -1.80118275
12.88506413 1.75853455 -1.79103684
13.6885767 1.88626337 -1.78146374
14.62036991 2.03389692 -1.77345061
15.68549347 2.20267081 -1.76419127
16.91357994 2.39730954 -1.75324607
18.32441902 2.62130046 -1.73821414
19.77503967 2.85488391 -1.70198321
12.19091702 1.60656607 -1.79873705
12.89612675 1.71657693 -1.78836739
13.69514179 1.84101772 -1.77790689
14.66185379 1.99022341 -1.773821
15.80141258 2.16559148 -1.77227151
16.9907856 2.35093975 -1.75599039
18.38267326 2.56765914 -1.73812854
20.04129219 2.82559013 -1.71886718
21.53233528 3.06437135 -1.65776718
12.23093128 1.57060599 -1.80062068
